ply
format ascii 1.0
element vertex 884
property float x
property float y
property float z
property uchar red
property uchar green
property uchar blue
end_header
-20.0766038702 9.62374804475 11.6265977171 137 121 113
-18.8199752451 -0.13666733192 7.87551068482 75 51 41
-24.6358271577 0.187054469529 19.0993451529 148 127 109
-23.1949570176 -5.78865791377 20.3851658197 119 81 62
-21.9526854297 -7.61683496236 15.1447192633 99 64 52
-18.5728554448 -0.486079882302 7.25002728438 153 127 113
-25.1390195153 0.192313938752 20.4816930141 165 138 121
-21.0816358413 -2.24336987304 10.9345869878 199 189 187
-16.8159542944 10.8997390865 5.94230706276 59 45 41
-21.8190956828 -9.93695304509 13.7104647079 212 202 211
-23.9782700894 16.2451333263 22.0524502732 188 169 154
-18.5207525914 1.30083738777 7.58726509051 129 112 103
-18.6861620788 -8.22518084289 5.14584575702 208 188 175
-19.2300456745 -8.89727723664 5.56251424825 171 152 135
-19.3804616859 -7.80212415274 5.77343670232 159 137 117
-21.7098132557 -10.9119722033 17.2097257669 166 147 135
-25.3244517963 -3.59458315633 26.1239104756 115 83 72
-20.022175814 -11.1597048484 9.95928108333 116 103 87
-23.1834312355 11.0351420683 18.4515110373 105 91 76
-23.8357685657 14.2585382767 23.2349310779 124 109 85
-21.7111420154 -10.128044052 13.3537727107 200 196 201
-19.2445172044 -12.3507932575 9.39456272587 159 151 142
-20.0281653958 -12.1585496926 12.5136907063 222 214 215
-19.7649431725 -13.0113573843 11.4131726107 93 68 60
-19.4651197928 -12.5908093199 10.3188291129 124 114 99
-21.5584905828 -9.49425238837 12.7792502888 90 62 51
-17.1028982249 7.56058939717 1.00883652129 87 73 62
-21.5532853871 -7.09863191778 11.7362640954 103 74 60
-20.1049611272 15.1071119671 11.5634178038 162 148 134
-20.1281658609 4.76697407027 11.6927863993 143 117 87
-21.994291599 10.7040350585 16.455883925 68 49 40
-18.4512322503 6.1229669462 9.12776429095 238 239 243
-21.868650493 -11.0150219559 17.9744699006 192 189 195
-19.3633638634 -12.9705266432 9.98124732523 150 140 131
-21.4845423773 5.04764111337 14.2141591868 116 88 64
-18.7849352586 -1.0316583247 7.22421525161 94 71 57
-24.8218338625 5.3304494597 29.6978034246 142 141 146
-21.1533211043 6.14686546885 14.259153192 188 164 141
-24.2494614671 -9.71938260112 25.0000523443 73 57 59
-27.4434298884 -6.20076049544 35.4065603086 96 101 104
-17.0134779165 2.59167822338 0.37159487726 109 94 93
-23.8545243606 14.2707235865 23.2283338144 128 107 85
-17.4776565197 7.30663489244 6.49471155515 168 153 135
-23.9007796673 11.8869197459 26.7782999366 62 77 96
-19.1190130483 10.8148130313 10.4620790925 147 125 111
-18.4370112265 -4.39903496537 5.46355774526 94 79 72
-20.5685351019 8.21580226668 12.5222372131 172 155 139
-25.4429333272 -8.47844088134 29.3610914151 67 55 67
-24.2090477279 6.25041825335 20.2881569248 123 112 111
-24.6727969842 2.94706370693 20.1897655298 150 129 115
-21.8074491938 -10.6085476361 17.3607489583 110 99 79
-19.5996065378 4.76759378916 10.6532863764 106 85 66
-21.1124672736 -13.854034333 14.8600995984 158 158 158
-19.8254245482 -10.6718561778 6.39253971572 156 135 128
-30.680756076 1.96276043835 47.1833078545 113 102 108
-21.1686741391 -6.9938440296 8.41121489546 90 78 68
-19.425673349 -11.9651072757 9.02428731319 126 109 97
-17.7761480226 0.257888033204 1.68877443807 85 65 55
-17.6285174921 -2.19436986757 5.12790848374 189 170 154
-19.6211827187 -10.9925955243 7.36969866915 101 83 75
-19.3999185741 -5.81570576564 4.56444364449 80 67 59
-25.1531876412 8.25722854444 31.2713509149 138 136 141
-24.7781612246 8.33091393337 30.1499664853 175 176 181
-22.5806088692 3.67416295835 16.8616494895 154 152 148
-19.8290026104 -10.5539407321 6.88249624025 143 129 120
-19.0474319555 -8.98330203108 5.07550032282 159 140 131
-28.3787671268 13.5704667578 41.1237263127 98 96 107
-23.6340378038 14.9776672811 20.8761470469 140 118 104
-23.1954613902 14.7972507004 26.548828418 53 66 86
-17.219427673 -0.180881782169 0.906468218087 103 85 65
-19.8472496205 -1.97391414806 8.52447047632 132 105 83
-24.4628242705 6.90967383401 29.2757800435 180 179 184
-24.2074687647 7.63655847803 28.5099006127 42 52 70
-20.638861841 -1.08721278025 10.4622017867 223 225 233
-24.9730586204 6.08817872449 30.3050519126 131 128 138
-20.7175251272 -4.00346672307 8.17867885449 131 113 103
-23.0505219268 14.1656020337 21.6615149434 149 128 112
-23.8836323216 11.4779029661 26.8526392181 93 109 125
-22.7976328593 -6.54745923333 18.9412876158 83 54 43
-18.5335706891 -3.3496446289 4.68241126468 195 177 161
-24.1455057953 9.69690799717 22.7877477249 149 131 117
-24.6640923438 7.83517958736 21.6797584278 175 143 111
-19.4776724417 1.14485830327 9.35787456917 105 74 61
-25.397279525 -4.88201412159 29.7628035286 101 95 93
-25.3382287809 0.116793931537 27.8113447501 126 116 109
-19.0602488756 8.52074649477 10.2820764365 103 116 132
-19.097461365 -6.89832302509 4.52319465126 27 19 15
-25.7391790744 -7.8289004125 29.7130927219 144 130 131
-24.9651155051 -0.913909550933 28.701359742 87 80 77
-18.862516914 7.17595141204 9.87229617626 32 45 60
-25.4455206664 -1.67666757305 30.2794724295 220 221 226
-29.6284463187 7.81503331289 43.1542888754 170 160 158
-16.0603531315 4.48173049652 1.02031423796 192 180 159
-25.5269380815 -1.54804137558 27.5344568563 226 214 202
-24.6270744892 15.5295515434 24.4338934764 158 134 117
-23.1387461615 -6.16580034113 20.8913281766 147 117 109
-18.5472281894 3.52750508527 8.07300529707 38 25 11
-25.5063346158 -5.57351436571 29.8557218914 95 86 87
-18.6145896705 6.91911532634 7.11396521235 79 60 49
-23.631545376 12.496796059 27.8476945475 220 221 235
-27.6313185086 7.15468686679 37.9817476417 110 106 107
-26.1154461625 -0.803921110022 26.1948453991 96 81 70
-28.01968767 -1.93589505782 38.1119906182 178 171 164
-22.6297752852 16.4734465927 18.3063806675 66 50 46
-27.5542992474 -4.97288483063 36.142570069 240 237 243
-21.5037712064 -5.88985426468 9.92785083913 88 72 64
-25.8778348913 2.75846295169 27.4677852459 51 52 58
-28.61143092 3.2557820791 40.9872065883 252 247 247
-18.6357062338 3.90082958606 8.3511959867 103 87 74
-17.4517146363 0.143302882876 5.68508289614 163 138 120
-27.6896675313 -8.05966133737 35.38236137 216 214 219
-24.6560229784 17.2396816752 25.0385410214 45 28 18
-24.6437467051 8.39872215543 26.7864567862 65 59 73
-22.5638431868 -3.49757538556 14.8354069987 99 71 59
-17.6517466162 -0.740821266708 5.82948863965 176 167 149
-22.7136405018 5.24825607338 15.7963327895 41 25 12
-27.3573203005 -0.00289301067749 36.7198465273 251 247 251
-25.6235414604 6.32714255394 32.5779695628 81 84 93
-26.1682333862 8.77674716193 34.3987770655 55 56 65
-20.0663123682 -14.7123367607 11.4312044474 130 120 119
-17.813886373 -2.58991971449 5.09154656348 167 146 126
-21.8643417947 2.98014736302 14.7836493023 154 126 103
-19.974543285 -12.2460891562 11.7973157576 131 107 86
-21.5212407628 -10.0231298456 13.3932355527 192 188 202
-19.0573038007 -7.82723594167 5.17243330518 193 178 166
-21.1975692853 -5.32237107019 11.0852659604 90 69 58
-19.1987185684 -7.72332293353 5.57417530936 196 179 161
-18.5764452113 -7.66680341704 3.52471231747 102 88 76
-19.1547257756 -5.92011535864 5.93149667206 183 167 153
-23.7503697053 5.84429985704 19.3197043079 96 86 80
-21.4784786282 -4.48317263653 12.1544414139 98 73 68
-17.1936478899 7.47654156305 6.61105148661 199 181 155
-20.3500272707 1.38063423495 11.0453403793 162 130 108
-20.6129022709 -9.62663107077 9.95375478208 108 80 63
-19.9557220281 -11.4239600129 10.1047221668 118 106 94
-20.7870703803 -6.43168516342 7.72350183349 89 69 58
-20.2042199637 -4.49674257636 7.07907831552 100 81 74
-17.4377891086 12.1045340251 7.53812690289 147 137 125
-18.4511999207 0.135542494871 7.20499895321 84 66 62
-20.238112699 -12.5743636535 13.1594328776 69 58 65
-22.7073794398 2.65111466678 16.3238929168 150 135 127
-19.2147923425 10.3569068185 10.2598702887 141 125 111
-13.9706795757 0.600146219878 -1.8606632363 76 72 73
-25.8314029097 9.56321616336 25.9756574825 139 118 99
-19.0336181719 10.6453050731 9.90468952444 149 133 120
-20.7503139854 -13.1902454452 14.0539979029 110 107 112
-24.3333701923 9.24798399813 21.0642418326 195 168 141
-24.5035414918 14.0919816695 22.9528140204 60 44 31
-19.957580008 -12.6495208744 11.6524143732 227 216 205
-24.5127992122 -6.3598486778 26.452108184 132 95 80
-21.9621220918 6.41394744106 16.714639378 48 42 48
-25.2165085787 7.69093048525 24.2331353061 201 183 170
-20.7951519503 9.27619060287 15.0583348621 106 113 131
-24.5737542773 -3.46458249033 19.1160525221 137 100 82
-19.2073088808 -8.66625419098 5.18177544484 206 190 176
-25.7035981302 -4.91314428997 30.4262300528 107 105 114
-20.8721322659 -1.17967839334 10.799743962 156 149 149
-17.5617484523 -0.625033968826 5.56590495997 87 80 77
-16.8088951052 4.38897847273 0.0381956249679 66 48 36
-19.9270336088 -9.37454940526 6.01973967131 44 23 22
-23.6809594958 10.8251749942 28.0941439994 120 126 139
-19.9665950752 -13.1095104516 11.3904529977 61 35 28
-20.3956631371 -8.84450558541 7.00440428029 154 132 118
-19.3217223718 7.26657485643 10.3963619601 80 91 109
-19.618229868 -10.9553887817 4.33902035645 143 121 103
-21.6639007502 9.47988301261 16.298445796 202 189 174
-21.5948592797 13.9828076044 16.8364900144 165 144 125
-24.1327052968 11.3028578896 20.7121310641 56 39 32
-22.0495577692 -8.0966339601 21.3442445494 229 189 150
-28.0209411813 14.1974350179 40.2264866695 105 103 106
-23.0322271953 12.0644163822 18.4476164925 175 158 147
-25.3114336341 9.23251245045 26.5413831559 103 90 81
-21.3465956751 -7.32186214305 20.8108278187 64 38 4
-21.3465956751 -7.32186214305 20.8108278187 64 38 4
-21.6136936465 -6.8022660747 9.83313976584 92 64 36
-23.4710436527 9.68484747447 18.8387977867 91 74 64
-17.5410684631 0.111867355366 5.40127465224 199 184 180
-19.8588879714 -13.142140015 11.2836217581 221 202 203
-25.8843947775 9.04284125036 25.4358528986 117 88 71
-19.0548900277 -12.2767272159 8.85395251816 121 110 109
-25.7698290665 7.54656698812 24.8575438989 205 182 164
-27.1289542231 6.0969938605 35.7856478263 87 86 84
-25.3877035482 -2.73962187841 28.6962333146 104 100 98
-24.7272373589 -3.18629004251 20.7743507746 211 175 170
-16.9347826065 8.88849303507 3.95785126508 33 18 15
-24.3259862625 17.6725092121 23.4959153675 167 146 135
-22.3242507915 -5.07769974942 15.1034081622 79 57 46
-25.1783258812 -3.76351564877 27.2846620843 134 98 86
-23.9275960937 15.9587529551 29.4226294131 123 118 122
-18.7689740317 -5.52987452147 3.93001531786 112 97 90
-22.2546523657 10.8866174941 16.9358258419 121 107 99
-17.2947861682 1.00208015797 5.61314107449 188 172 157
-21.7540576196 -11.8058760399 17.1557144199 127 123 129
-25.7850547192 -5.03794562081 30.7113385128 208 203 214
-23.8764187529 0.865238262859 29.990567968 214 213 224
-23.9135409293 -10.0429375536 24.3623955772 84 82 88
-20.6579380256 7.19575893907 12.920077224 58 43 37
-22.5940006344 16.1134831029 18.5468896583 56 39 40
-16.879326914 -1.57097568541 3.52828149834 205 183 170
-20.6491208579 2.26582923142 12.1097047528 179 160 153
-25.1578618112 -8.16582872457 28.3684478723 160 131 124
-24.6395927455 -6.6960674139 26.5742988675 135 96 82
-19.0649323038 11.1450585193 10.101829272 137 115 102
-25.2682018527 11.82275059 32.7618594169 59 60 73
-23.1876948269 14.3193674855 27.4684115059 58 63 78
-20.3782163284 5.70596980335 12.4039288418 126 108 88
-26.1532235534 1.32644614102 32.942328853 230 229 235
-19.1441670422 7.25067931928 10.1553971781 47 60 77
-26.0490631884 -6.57542615876 30.9559690168 205 206 211
-24.6797485384 2.65079407088 28.8977702202 120 126 145
-21.5020135573 12.77460307 16.0144214009 92 80 76
-25.054682982 11.8406346999 31.9652361967 85 84 98
-24.5985371483 12.3972911403 30.6062286754 164 163 168
-17.4616385479 0.0050721376129 5.65611197283 180 163 155
-20.988947676 0.404045479007 11.2861454281 96 74 60
-18.1420631551 7.36688045267 7.47502145453 104 89 86
-19.1160914797 -7.22870237972 5.09024880626 205 189 177
-31.5181419403 12.6901976325 50.1493141034 99 93 95
-23.2919502361 14.8783297619 19.5985402938 149 128 106
-24.0638843075 11.0684006998 28.7532140641 76 71 75
-21.550510428 12.8136750851 16.0224392428 89 79 77
-22.818032916 12.731143204 18.2716883494 180 160 151
-20.5109590881 12.6123566162 14.7150104841 82 66 52
-22.1885494371 13.3422442138 19.1957196861 159 140 125
-25.4705983538 11.413179695 25.7669774553 38 17 7
-18.0078457331 4.15865082656 6.33564890736 196 178 172
-17.6944479487 7.39012196047 7.04634240013 212 198 189
-25.7447880517 2.64970042803 27.7557645371 38 34 47
-16.8775297988 -1.75776777373 0.657193351021 170 164 154
-17.669419307 -2.2983842954 5.22257036702 132 108 87
-22.6487243872 13.1751861166 17.7825318325 159 139 124
-26.2792841148 2.55341298712 26.0436006334 169 156 151
-21.0838997741 9.12265780093 13.1664574561 50 36 27
-19.4368968519 -1.5330427042 8.0620086479 163 129 101
-18.3739227541 -2.27421133492 6.02053443596 148 129 111
-17.4374780239 5.22702344248 6.25613684004 183 169 159
-25.1918372569 13.5383014541 24.8256332866 133 115 103
-29.7683593704 10.5125216153 44.3980362367 106 100 104
-23.5266292641 14.3208412124 22.9334808901 215 198 177
-22.9268781899 11.7855175309 18.4050653451 129 111 97
-22.1163078411 15.2651409525 17.3303043761 170 154 137
-18.3378444316 -3.80391418124 6.13743931679 244 233 231
-19.5887197187 7.17085409286 10.9140904969 94 111 129
-17.8850105221 2.02544238313 5.9143961155 130 111 93
-18.9752608687 4.04415989843 9.71936287808 161 140 121
-20.5436637925 6.88840246428 13.1237266288 132 120 114
-21.1863985936 1.49963142427 12.3249121275 198 207 216
-23.4174977075 1.87318090224 16.9140700596 181 154 137
-19.1996686923 9.78680891354 10.7969731423 171 155 142
-19.8123382345 6.42097522395 10.4858133657 74 75 86
-18.9047699351 3.08585820047 9.22108162168 104 82 68
-18.5854891322 6.0699970816 9.45856905947 239 240 237
-21.0076565771 14.0876351905 14.9471904054 173 148 126
-18.4052980008 5.29950682287 8.73277593411 60 46 33
-25.5778407394 -0.784380716437 27.4344167799 128 116 102
-16.1949912649 6.70078211631 -0.177027285313 109 89 76
-19.9944082768 -10.2234844692 6.92990242283 138 118 107
-17.1475146682 6.95295061883 0.967753795655 111 94 84
-20.2208526052 -9.95109090334 8.21618383402 121 105 90
-25.5867668253 10.2081785065 25.6640361605 70 54 45
-20.8342622682 -6.78156207246 7.31920605271 104 81 67
-23.0805161173 -6.08984963181 20.1633996271 119 92 82
-18.814325203 14.8444211509 8.71695182314 152 136 121
-20.7137213867 -0.717840784178 10.877080945 175 168 172
-21.4038834911 -14.5002867002 15.6584134644 117 115 116
-17.0441995895 0.28034643744 0.424098875123 100 82 62
-17.5014894206 -2.67346946796 0.295173092401 90 77 71
-20.689056745 -2.14835958623 9.72022165612 104 82 67
-17.2307994077 -6.19169912194 2.3517116078 147 129 115
-24.4486763431 16.72169337 31.4929310751 76 71 78
-21.897989918 -5.27763497087 13.8419102387 95 73 62
-25.3287395939 9.29190171847 32.2473130084 91 93 109
-20.4032572648 -9.94819621145 9.88585306602 106 79 70
-18.9220783988 3.09277889132 9.22203360217 118 98 87
-17.5556845503 7.87457205435 2.42236368725 99 86 78
-18.8081732682 6.28023349859 9.9073615128 78 85 99
-17.126221951 -2.74775107121 0.151973909872 84 73 69
-20.0972374481 15.7743843868 11.6021016404 175 149 136
-18.373613959 -3.84643317901 4.82907020972 168 150 136
-20.3019270973 -8.66731646566 7.40080508576 115 97 87
-21.7521789647 -5.98220765862 13.6347346896 107 86 75
-17.0466851371 -3.90458062158 2.58077943946 143 125 102
-16.8275358381 -5.05981284669 1.99161338094 193 175 151
-25.8866936727 3.45120906519 24.3102710716 91 74 64
-17.1419541792 -4.68863523741 2.14628874862 138 120 106
-17.481728576 -2.59447365635 0.372875759455 88 71 67
-24.6533478178 -7.41350618008 25.7055450261 145 108 100
-23.1141938548 -6.11161560609 20.1733599113 117 85 74
-16.5300163313 12.4019440906 4.36706567874 227 217 208
-25.2144146357 13.7710527426 25.8315387287 68 54 48
-16.6635497658 6.50527713812 0.34878390363 80 56 44
-18.9223600777 -12.0585998938 8.08585390856 167 149 131
-22.5054772043 -10.6508429216 20.1938878726 215 203 217
-17.1047928342 -6.58516776739 2.10320733006 140 120 102
-17.4282208692 12.0884070633 7.5418292665 157 140 130
-22.6873266112 18.9060993713 26.2980295444 117 137 139
-19.1932460495 14.0160513207 9.56407317795 216 197 182
-16.5160948032 9.57926928658 2.90009338039 154 141 126
-30.3003973362 -1.01060829762 44.5653116826 247 242 246
-22.5018123648 -4.44137423476 15.049939281 99 71 57
-14.1009442092 0.841842947075 -1.26133358384 178 184 179
-17.3857525472 15.3790322144 7.79277961546 231 218 206
-24.3416957523 -4.38240558153 21.0284928801 131 95 81
-23.2563251362 18.0962322046 22.331653095 170 153 133
-25.2151763142 7.27984840322 31.3773951233 140 138 141
-16.4019856836 12.0954699896 4.39488200652 245 234 222
-19.7616533675 18.5008253363 17.630133911 209 208 212
-19.6974845394 18.4590492399 17.6227329844 209 208 212
-20.1237742857 18.3600072141 18.6766839057 165 161 160
-15.9367381905 -0.350031419186 0.894476806553 159 129 101
-19.4632870213 -7.44486942613 3.87406123954 61 51 50
-24.3453167788 12.4680631367 26.4269338619 54 63 84
-19.242895818 -4.93500887331 5.44603368563 91 76 69
-19.8214649151 -6.81496707882 6.01222647659 54 40 44
-19.0858545082 -6.08460391665 2.92282302615 65 47 39
-23.3786470192 14.012433241 26.8838076724 52 67 90
-18.2137447373 -6.19426528898 2.20429172786 95 80 74
-25.1689052551 10.5432019851 31.9271122732 225 227 237
-19.0192911797 -9.17085530591 4.59931662097 132 113 99
-17.0642656285 6.37158135567 2.73285816587 32 14 5
-23.5490972461 1.26049875768 17.0224260949 102 76 56
-23.5286884792 -11.569189824 22.315176445 142 134 138
-21.6372495926 15.8203506355 15.3516221893 157 135 116
-19.9710449248 -9.40618571679 5.98755011308 52 32 25
-16.3812911789 6.01652668794 1.90728634594 185 166 151
-21.1873646736 -12.1143292304 16.3471220099 90 90 92
-24.3291043839 -4.75241716949 24.4738760679 123 87 73
-23.6807863892 -11.1401515154 23.5180358252 115 109 113
-25.4214278687 -2.17582958479 28.1097596696 105 88 78
-29.0309830281 5.40853331927 41.694563396 236 242 241
-20.4204369617 -8.44259223551 7.73925191336 209 191 179
-21.3747904167 14.9581485486 12.3805090565 200 178 161
-16.5300163313 12.4019440906 4.36706567874 227 217 208
-22.3779476395 -12.4622623138 19.0191928501 120 118 119
-23.4888920168 10.0395811897 19.1363315478 90 73 64
-17.4386506092 -2.92775373678 2.98477359936 115 99 86
-26.0399797702 3.96424595446 26.3844743792 103 89 78
-17.1612586384 6.18164930472 4.78022747862 79 95 121
-24.8953083939 15.6167212504 25.4655894949 81 59 48
-21.2499595906 -6.63561804328 14.7254893093 82 59 51
-21.2499595906 -6.63561804328 14.7254893093 82 59 51
-22.8806441287 5.93071180607 16.9135369107 155 134 118
-16.8837406122 -4.78955085447 2.24193231271 192 165 147
-22.7906485046 -13.5389970893 19.6747834872 124 123 128
-19.5272559431 -0.781721971835 9.09550280817 99 79 71
-25.1084121534 -0.647828567468 29.5126663683 156 156 153
-19.654348945 -10.7026984311 8.66963329613 131 113 101
-23.8809735507 -4.7831623521 25.4609363938 132 95 86
-16.8361235421 -2.0002399139 2.02132443018 44 25 18
-18.3813379336 -6.0455800879 2.7344101296 169 154 147
-17.7121215119 6.9712813111 5.0598181528 83 93 113
-19.3592615816 -12.2260330876 9.72221934201 128 116 114
-24.6343031211 -6.28938916136 26.7288668571 185 144 134
-32.0839548599 10.5562932676 51.0608848472 109 99 98
-24.8422698985 1.1013766845 23.3559998095 171 155 140
-21.5844634595 12.0163858931 16.6411626027 82 65 55
-19.6730249913 -12.9446494168 11.3921960666 63 40 34
-21.1192273328 -6.2247987544 7.85621497149 84 67 60
-19.2929719889 -12.1956644494 9.35239127154 107 97 88
-21.7920707762 8.99459613073 16.3809990763 204 186 176
-25.1804993638 -3.8347400544 29.3659419117 153 160 169
-17.8362874167 2.37724566451 2.77812186755 106 92 81
-17.987227202 10.9294592855 5.98886370336 138 123 120
-19.1671990906 -12.2923292898 9.18007308645 121 115 114
-25.9028856139 5.85985891445 24.9161934939 78 54 41
-17.085325079 12.3080614519 3.81010283643 80 61 50
-21.1766313106 -12.0171567501 15.4419741999 212 207 209
-24.9686370463 1.2634445275 22.5627165594 190 176 167
-23.0082850294 18.8788243751 23.6669342895 150 128 113
-17.2350455319 12.8304204151 4.88699819859 52 33 35
-24.1121364884 18.2151375289 24.5049711495 133 114 99
-24.1121364884 18.2151375289 24.5049711495 133 114 99
-30.9049237537 -0.3954645334 47.5624818642 247 233 232
-24.3029912277 9.22551972305 28.8111772883 216 215 220
-23.5980730599 13.6761074177 27.0558063535 80 93 112
-20.3355833123 6.32741536251 12.865422386 171 148 133
-18.0267005004 11.3813194947 6.43874525723 108 91 84
-26.1901485827 -4.47449385276 31.755192802 92 89 97
-26.0299637833 -4.4657460033 31.6137178088 92 89 97
-24.2973328496 9.30082570669 27.0426689962 97 111 131
-22.3912973446 12.918965085 16.9279084234 92 75 66
-17.9568935488 -6.12873016769 2.96453734121 138 123 116
-23.1815095726 17.8921915208 25.8144561818 55 91 89
-18.6779652524 -2.89192329022 4.02879488845 107 91 78
-19.8665033747 -8.90040812196 5.92389570197 157 135 111
-22.9824928192 18.0657787202 22.983805495 190 169 150
-24.2890255082 -9.19567836533 25.1662249929 143 107 95
-24.2418143975 -9.18027855162 25.1378428955 143 107 95
-19.8014216262 17.3293628946 16.2300293057 86 83 89
-19.9397915706 18.4314169345 18.2076664722 78 83 83
-20.9893958559 17.6769688047 18.83433939 104 91 80
-24.2433135487 -14.872039942 23.3929194714 65 65 70
-19.195541106 21.5783882899 16.6812892488 88 83 83
-24.2707340985 -4.67722821024 23.7067389555 144 110 100
-22.3915317346 -9.93797383412 17.1729576904 194 188 192
-23.3377356112 17.4192232054 25.8390690528 65 99 98
-25.1589748429 7.9471596148 26.8227240127 168 150 147
-25.0340689339 -14.5765529211 25.9357841402 204 203 212
-21.9337879179 -13.1898347447 16.4460520375 148 142 147
-18.9571077282 0.519650655057 7.92482294063 194 176 169
-18.140712303 17.0350371977 12.3267564775 95 94 100
-18.1760724782 13.0590274404 7.06418626372 154 133 116
-16.7180170332 12.0872925109 4.0100903945 203 189 180
-23.1350027527 17.0615169723 27.6537632487 121 121 124
-18.4974654006 15.5073466408 7.82927175967 94 81 72
-17.504567958 11.810265688 3.35231498669 73 51 29
-21.1641352863 9.06485275812 12.6715565578 192 176 164
-25.8145735207 -4.4644982533 30.9470432345 147 147 149
-20.6972517315 -12.0559544216 14.0068737661 230 222 227
-18.5842767497 17.737634919 15.0449369041 72 74 84
-20.4162919614 -9.57957307422 9.92727139759 112 84 70
-22.0617071721 -8.19162100072 15.032634878 112 82 72
-18.2709169667 11.8420212675 6.82806530545 123 113 114
-26.0744138965 -6.90789994089 30.9602042981 212 213 218
-25.141520281 8.25527827563 31.2676471774 129 127 132
-25.6521917301 -3.53956289224 30.4945871817 210 208 212
-17.0861548342 11.9547969368 3.85381890895 146 133 125
-24.9133252033 -9.87400846456 27.4626005449 43 41 45
-21.3154564588 -14.1870762144 15.2768002602 115 110 112
-18.7304042312 15.0034537942 7.48229246071 70 60 58
-19.9235494066 18.5734225998 18.5963177935 78 76 84
-25.966688525 -4.9318231318 31.1164452495 128 128 130
-17.7565835882 14.2192581793 4.57979015619 78 62 39
-25.1874961172 -2.39840659595 29.619982254 97 95 106
-20.4934870833 -7.5394419971 19.8005261092 212 174 128
-19.7738018666 16.2463875951 12.2669679114 163 147 131
-18.2176049919 17.3432707694 12.8672210042 50 52 60
-26.1148049208 -4.20766113278 31.9551044664 173 171 174
-20.9202808497 -8.88005066001 10.2761452185 88 60 49
-24.6250090214 -4.10041624914 27.4719944763 123 89 78
-19.4450591504 13.2301219133 9.85254036059 168 146 132
-25.5643166164 -4.57621077007 30.4743125851 219 219 221
-17.1714767368 15.8084087712 8.6041284251 102 89 86
-20.1000334485 -10.2850041959 9.78879467822 151 138 120
-23.7977690526 15.7350920353 26.5257067182 84 101 123
-24.119874813 9.79333334688 27.3965084395 101 117 135
-21.9538066615 -8.16718017083 14.7719510239 93 63 53
-16.8206198308 15.8209958378 8.63071311129 81 81 82
-16.8206198308 15.8209958378 8.63071311129 81 81 82
-18.948125678 13.2967420948 8.48314629325 149 135 126
-21.2304626653 5.30561706305 14.0867961993 156 128 108
-22.1204446373 -14.0645712463 17.9191001192 123 121 124
-24.3984090559 4.01131375433 28.754362492 195 196 203
-23.9577363793 -9.59077098127 25.9306301598 190 180 169
-24.5206555307 15.7096668718 31.6444610664 57 61 73
-16.9635824566 8.58524922904 6.02046171902 151 141 129
-25.4517037089 -5.58721800801 29.8180903996 95 86 87
-22.0036150815 -11.3194259393 17.3796670946 142 131 130
-24.0647284253 -4.68961274153 22.3210821233 159 129 118
-23.6827143056 11.6777232169 27.3245347132 78 90 110
-26.9209317873 4.09945643353 35.1893619787 217 221 220
-24.6047104051 4.7059952521 23.62642089 193 174 158
-19.8919321027 15.769854672 10.9720889524 161 145 133
-21.5143174452 -8.3357464253 11.4664740336 83 55 44
-24.3605579246 6.63136081599 28.1016243981 75 85 110
-24.6606798415 9.03123973804 30.0060730896 134 134 136
-24.5336109765 13.9659865284 30.9377598254 141 141 151
-24.4911237984 7.97678527033 27.2067479535 74 90 111
-27.5919143534 -5.25726017584 36.3225122602 240 240 248
-25.7482746174 8.0055055676 33.0162390137 168 166 176
-28.2688907269 11.0307899345 40.3313284018 81 82 94
-26.6270563037 -2.61069816083 33.9930394504 150 154 151
-27.1903285106 9.11749128702 36.7973709348 184 179 179
-26.1042384937 -8.07067496249 31.0402148378 201 199 204
-24.3901499941 -5.52266622972 26.5488739727 163 124 106
-23.3420229761 17.1950078596 27.8023065626 121 121 124
-25.219850356 -0.128542599559 27.8355411657 79 75 63
-27.8480611866 -3.85240972722 37.1881299951 163 151 161
-25.3952246785 -11.998998325 27.7249083394 163 159 160
-27.4694475758 4.20592237094 36.8688415076 216 218 209
-26.766203546 4.36446548282 34.748529776 80 84 87
-26.7664097764 4.32655151407 34.7400428118 80 84 87
-21.0332271551 -11.7359032953 15.2045102269 225 223 224
-24.0646918864 18.176166447 23.9575207613 94 75 61
-26.8460205336 14.7280570042 36.8093384363 93 89 81
-26.7745873024 -3.49556834298 34.17281318 166 171 168
-16.3982818301 -1.3659300947 2.70798449026 217 207 197
-17.9681806685 0.180362196415 4.12502619789 56 41 46
-18.9466109066 -5.33182163871 3.10560205936 90 75 68
-18.3397027635 12.2477571869 8.53555504235 119 104 94
-20.0757250777 10.1140090832 13.0673581991 106 92 91
-22.0763690614 15.792701799 16.9862987711 139 117 105
-19.1975240934 15.6099759165 9.94006636989 75 59 46
-18.4585888787 11.1943467859 8.25296468902 100 86 73
-23.9291954568 15.3682725896 25.5550642502 142 121 116
-16.3012067496 1.88753737154 2.65392943095 223 206 189
-18.5965512608 13.3137740864 7.94034465621 157 138 130
-18.4152533462 7.58665892076 9.5249895229 71 78 97
-21.5086483486 14.7085549449 16.799753048 198 171 154
-23.0591694753 17.1696778528 20.1034140144 130 113 103
-17.9046297166 -5.29308178673 1.16111980006 147 134 125
-19.8306006572 -12.9804336323 11.6556934753 187 158 136
-19.7258911932 -10.1975743083 6.02036770297 122 104 98
-20.1864897414 -9.62278521082 6.18685640119 97 82 77
-19.7635630592 -9.44896347417 6.90502403292 224 210 201
-16.8791547359 -5.11107875252 2.12628822256 135 117 95
-19.48370719 -11.6069656418 8.84864101844 126 108 96
-19.2429692587 14.9645825276 9.93550498665 70 47 39
-15.9977540962 1.87204715928 1.91373154698 223 204 184
-19.3618550197 -11.176248169 6.39929145816 136 122 111
-19.013456776 -7.07554590028 4.85896037285 59 43 37
-19.3902738455 -7.6626845664 2.93265292634 88 74 66
-19.3533485306 15.5902049887 10.104248542 147 129 117
-21.2816758388 16.2223217738 16.6681651769 78 64 53
-21.468710044 16.5541977965 16.7325659481 208 194 183
-16.3094623307 -1.5891069137 0.99318884796 250 236 233
-21.6366949113 12.0236931143 16.0640801265 109 91 83
-21.7895649499 12.0841960047 16.1001773903 109 91 83
-20.862917707 -6.57092485015 7.84240069974 103 90 84
-21.6650557508 -9.59310362812 13.2001872216 113 86 78
-16.4417479675 11.4378262816 5.15349116169 169 155 142
-19.3318565314 -8.74048939155 3.8457704465 53 44 39
-24.9915775305 13.8379663054 23.8634008671 25 15 14
-24.8795362303 12.9319994955 26.0959837726 131 122 112
-24.2337597652 -10.2038886572 24.9163064428 43 39 46
-21.8805348513 -8.07637974017 17.0210432195 104 72 61
-24.4469381871 -15.1213049489 24.1104691164 33 33 45
-19.8531725545 6.54150163521 11.3573795334 98 114 140
-22.0457451761 -11.7695298562 18.1718198244 62 66 71
-22.5317624927 3.45689207802 16.8194660627 57 61 75
-23.5317637645 -14.8105898633 21.5412076587 181 175 179
-23.5663226025 -14.8214146129 21.5407172182 181 175 179
-20.9427385865 10.4996979521 15.051932942 153 154 152
-22.185282655 17.0514996947 17.9828300123 117 100 93
-21.2213611916 4.18757446659 13.2528349858 113 83 59
-22.8723887696 4.06820470711 15.9467673968 33 16 8
-24.3213658383 4.69491785245 22.7789216257 141 123 103
-23.6037302911 -9.23057115974 22.8936882656 110 94 96
-23.458393796 -14.5892900887 21.4013734798 134 125 130
-19.5068572096 -5.79872466699 4.76267165493 71 57 52
-24.376493904 -7.84523018563 25.5434840433 149 115 100
-21.1252882938 12.9363077242 16.8416470612 227 201 187
-22.2934010527 8.60966131188 17.4948876129 143 128 114
-22.6888493874 12.6881178433 17.8388998644 109 88 73
-21.5452017772 -6.57515070014 10.506642493 143 119 104
-25.3662308257 0.1565711695 23.5507327119 115 91 88
-19.4948577991 0.274626659567 8.11215050965 160 137 127
-23.0070551718 -12.3694330429 20.8831112349 158 156 158
-20.0859654466 -10.9798467921 8.92724699272 157 139 127
-26.5996906353 2.85325508039 35.2518108726 94 98 106
-23.7662172065 14.1228865533 21.411305899 176 155 136
-25.5831061545 -9.0083150502 29.8039967416 65 64 74
-26.6354094671 3.60806066512 35.3373338832 81 87 57
-22.1356922634 -8.28137719235 20.2342046128 81 55 54
-20.329044359 -14.7868106396 12.2527398054 131 127 128
-25.7604256049 -9.20904064625 29.7662195874 80 74 86
-20.3482962447 -11.9245960024 13.5890680718 215 215 227
-20.164977498 2.43019778023 11.22536066 163 128 103
-26.0406389376 12.9070962045 34.3197869732 89 89 88
-18.9813922523 4.77408740407 9.64501518541 112 93 78
-22.2643429982 3.39604508762 15.7314266619 200 184 166
-20.0349023293 -10.355177002 5.61560970803 124 107 97
-22.9440965032 -9.1947540158 19.5643582943 116 79 73
-21.6990189148 -6.76605297309 15.4134315405 81 57 53
-25.3382341369 -15.3672826391 27.0378177106 111 109 120
-23.770908863 11.5795518566 20.4060494051 74 63 65
-25.2862028512 12.91217962 32.4512425102 150 153 161
-24.2958924936 11.8519118138 21.2405331161 73 62 60
-22.0838249224 -10.2051614646 17.0951775909 155 150 156
-24.6852824592 -14.7134061464 25.0748203592 195 194 200
-19.2681315335 -7.62441595656 5.29812753612 170 158 154
-24.8701168391 -8.77953905426 27.2187323432 121 94 85
-23.1040822522 15.3903406885 26.9961715243 114 128 150
-24.5007106259 6.61080544468 28.8381193421 91 94 105
-22.7121841912 15.0076707315 18.4274296505 179 155 134
-21.2110456427 11.147453351 15.966506122 122 101 77
-21.8451194497 -15.1913409942 16.2207188665 103 99 100
-18.8755826993 -0.46102147978 7.45124173783 105 87 76
-25.6411482477 1.12147190007 26.0897564339 121 103 89
-22.2779133076 -13.5643978555 17.9922463734 130 126 127
-22.9065485725 -16.1755674919 19.4728006138 24 23 35
-24.9957244851 -0.687023076966 29.4915553442 142 143 138
-22.7486180217 5.91446558184 16.4564721864 165 147 135
-25.8881568518 13.1566175831 33.597038553 81 85 86
-21.7176584904 2.09159114455 13.3290376363 103 90 82
-25.7454702115 3.95577640036 32.258236237 155 152 162
-18.8591845767 5.48562505853 9.91942051855 102 113 131
-25.3444997201 5.76477905483 26.7868039722 105 80 69
-19.0375165517 -11.9672225397 8.40832218859 165 154 136
-25.4756191922 -13.0535044661 27.9465724169 120 118 119
-25.4725865367 -13.0466160146 27.9730037945 120 118 119
-24.8582998633 -4.68855172813 25.2727822533 160 123 117
-23.3611618221 -15.330280236 20.5593557833 112 110 113
-22.1059258419 -15.8933517369 17.1159052666 125 119 121
-25.9411441269 -0.828942249333 30.2878895833 109 112 118
-26.1188660644 -11.6487842893 29.067584259 125 123 125
-19.9924643742 -10.6458851307 6.32669401764 151 131 122
-23.8364114381 -1.07541022819 16.9581541706 100 72 61
-25.4375744898 3.70434368833 31.3268400027 129 127 130
-21.8191476515 -14.9656155234 16.7972360923 138 132 134
-24.3924721444 10.9764207396 29.5318898281 171 166 172
-21.6167389815 -12.4364578765 16.967719032 149 154 162
-19.2494227432 -12.4970977127 9.39980933788 118 108 107
-20.6954939977 -6.90612409263 7.16631724556 114 97 87
-21.7977015396 -15.5687821843 16.4698065542 108 102 104
-23.171321126 10.8896722779 18.5152393647 181 165 154
-20.14819156 -2.36374016895 9.0368568582 162 137 117
-21.6435533599 -6.67654229519 16.292571193 121 94 84
-24.9389274364 11.0991016451 23.1985321563 174 164 148
-24.0244893228 17.2336349281 25.3766126383 114 108 97
-24.5711214554 7.32462280553 21.9322959124 215 197 189
-23.1198140594 0.303466659249 16.4237568444 158 132 107
-17.812303778 -1.1035098152 4.92687556411 85 72 64
-20.0469444369 -10.403666601 8.49346554624 111 89 71
-29.5804557877 -2.23368963937 42.6939043682 181 164 170
-22.0047635936 -8.98193860602 14.7036543175 89 57 40
-20.923235462 -9.47527194073 10.7615867932 154 131 113
-17.5765715414 16.1020764699 9.88875302059 109 98 91
-25.263309375 3.04325391629 22.0396519673 96 74 61
-24.836054649 3.13920524893 20.4725069221 185 157 146
-25.351367661 11.742940764 24.173731343 49 35 35
-20.4088288792 -10.8094245277 10.5984160511 130 127 110
-23.9781420363 9.83135374454 28.7914989095 130 130 134
-16.895061303 6.97224114652 4.21903759683 120 134 151
-17.0818888225 -1.83382944763 4.24023616358 40 21 15
-19.1118707494 10.8537079761 10.5547570436 149 131 119
-18.1632554022 3.41327536128 7.03171915373 81 58 47
-22.1448915833 -9.97926332813 14.8473919621 188 183 194
-19.8012200875 6.22515302576 10.4763167995 94 105 124
-22.9810162396 -11.9585133017 20.7617070624 128 126 127
-19.4249107704 -8.21599049201 5.84249354893 138 108 80
-23.4520372161 9.99407469214 19.1215531461 93 74 66
-26.0189326181 2.1402866972 24.9459338423 149 134 126
-25.585818809 -14.3422055994 27.791728412 42 40 48
-24.893100039 -0.337772934529 29.1348647168 86 78 71
-19.5513969768 1.69884801021 9.55953032707 106 79 66
-19.9978980195 -12.5194539488 12.0592702636 206 186 177
-20.3782183888 -12.6376798652 13.5664370759 236 224 234
-18.8238613766 -3.06653782811 3.64377700838 114 96 82
-17.3442456589 2.20340188562 5.11281154367 104 83 64
-18.374937014 -2.94648801472 2.8810849456 87 71 56
-24.3939721808 14.9743632664 30.73392635 148 146 146
-24.8192401737 5.67806654467 29.8228136297 155 150 157
-25.0766015655 9.29074918416 31.5499279944 146 144 147
-21.3819892184 18.9296282451 22.4075972993 106 106 108
-20.6409848438 18.9371157216 20.2789508075 62 60 65
-23.475607904 18.6945014323 24.8287413154 99 80 62
-17.7065565419 -0.469374873867 6.12016031339 184 166 155
-21.7907907147 17.4915563499 27.5783057444 125 122 120
-24.1999634801 18.3107091199 24.7953772772 162 144 129
-19.6493730092 18.6309750947 18.3654258329 133 122 126
-17.8302168625 11.9209047512 7.94406482859 154 140 129
-21.829658586 -12.745390201 17.1731188393 144 142 145
-20.4342870475 -10.1964689882 7.69835366716 119 102 92
-20.9186379979 13.6652632104 13.2458500737 87 96 107
-22.7804834582 -8.83436911666 18.2977481094 111 74 56
-24.7025979561 16.6111927423 25.4823959952 77 57 50
-18.0987376957 -2.74253977534 3.2090982264 84 67 57
-24.6987354146 -4.22261874514 24.822768158 163 126 108
-20.8312726617 -9.63470636304 10.795399967 107 79 67
-28.1524213975 10.7113300539 39.3879012778 128 126 137
-18.5502359474 -2.80174078058 4.38903210031 83 67 53
-25.4400913918 2.43302866092 27.9086731876 143 135 134
-23.6015995664 -9.13815014013 23.2509942872 105 95 96
-18.9663783327 -4.91110377002 3.73866358621 147 135 121
-17.1737546311 -1.70678968099 4.37757052954 239 226 218
-26.2318785879 -8.10867217196 31.1341373699 197 195 198
-16.9959181689 9.28234665719 5.23783152898 116 97 86
-26.7664486679 -10.7253731408 32.1908722893 68 60 65
-18.4642416735 6.95154459102 9.40225665958 239 246 249
-26.6187107495 -12.37435501 31.0358709379 152 146 156
-24.7843504998 18.2205954858 32.322233905 52 55 60
-25.6457308335 9.59678743814 26.3901984508 157 141 130
-21.3988620344 -7.53944425326 20.8297876245 195 159 83
-20.6877233016 -11.1492161209 13.4663812249 179 181 193
-19.3497462379 4.40057797952 10.4731066763 171 145 122
-19.4389733637 4.41567371159 10.4610292121 171 145 122
-21.2094161183 -12.4129822213 15.5310583075 99 100 102
-21.0487045744 -13.5528084366 14.5414185817 124 119 125
-21.1218743173 12.8175203795 15.6838407482 166 151 144
-21.1093039375 12.8093014075 15.6813218553 166 151 144
-22.7858107944 -11.4554201412 20.0429799903 80 86 96
-24.1443726023 -6.22912433875 25.260888562 183 147 134
-19.8629552853 -11.1209353496 8.80666114511 129 110 96
-22.5993129225 -2.02226069659 14.2163409191 102 80 69
-26.8642860314 17.2879481662 37.8181630054 172 165 163
-23.9923094738 -4.27630163213 19.6703089194 133 103 93
-25.5507841566 1.66229874412 25.2636177311 76 60 47
-19.2903288493 18.3696477732 16.7334158999 106 103 116
-20.9699263604 17.3689888375 17.4338906011 179 163 148
-20.9301698335 17.328813529 17.4229617092 179 163 148
-23.2272175243 -5.66939508165 19.215133136 143 112 101
-18.5015657847 15.4858504322 9.95737491708 227 208 194
-24.5336979924 17.7778402339 24.4691229228 154 128 117
-20.4473250322 -10.0852007391 9.78911501077 98 81 65
-24.1190243751 10.7610468876 20.8393563582 36 18 17
-19.5491759715 15.7139733119 10.1168886717 156 132 120
-25.7407611962 -1.99429574101 31.4022043112 144 144 145
-25.7012249384 4.7779513564 32.1951174903 163 162 172
-17.897663956 7.45067727258 7.04922327487 218 202 187
-17.3125197425 -1.6964615833 4.4963042619 237 223 221
-18.8670803227 16.0207211364 10.7883080043 99 86 70
-18.747089926 13.0024443021 8.76299730455 60 43 36
-20.3758207057 0.42801976419 10.3329973658 90 71 56
-21.8107764601 11.1000924266 16.7061081429 156 136 124
-24.9569232366 8.7552572831 27.129000963 91 100 117
-19.0392151066 12.9298645441 9.70308074474 108 86 74
-17.5123696558 15.2796894596 9.10962290622 102 86 73
-19.4175369241 -7.92900303689 5.89150634441 213 188 166
-18.4398927176 8.69583543755 8.73829185594 119 102 92
-26.980593248 15.5133535595 38.1077048819 108 103 109
-23.1009621383 15.7861994254 26.6574547751 46 69 81
-29.1661984567 19.0743005106 45.3421857844 102 97 102
-25.0620616772 -5.18257559734 28.8511615177 128 92 80
-26.8532697485 1.9006147846 35.5220512684 84 92 76
-27.267031336 12.4323247137 38.0326612746 137 140 148
-28.3393131513 8.21925704689 39.5611633566 115 109 109
-22.1540718833 18.2845567008 22.505577313 171 149 128
-27.0121043605 16.0290072816 37.7621150877 103 94 100
-28.3237177656 13.0540336326 40.8020765225 168 167 173
-23.6191397245 14.7055350636 25.8531084587 53 65 89
-26.9967313391 14.0721145485 37.0771246297 176 164 155
-27.8059785179 8.49895469225 38.5186820746 150 138 138
-27.584292246 -1.50927197953 37.1161395638 247 239 238
-28.446292887 9.40994603829 40.459047908 112 105 112
-23.597745032 9.49537156629 20.934261227 155 137 121
-26.2741042051 -4.43825425618 32.1708782786 158 157 162
-28.6830021153 10.410711511 41.4075901349 95 85 93
-28.9485551959 8.97668681035 41.9812552585 177 171 173
-29.1311938945 -6.42179315273 40.3692461495 77 77 69
-28.4740801981 8.36755716391 40.2703166827 161 157 156
-13.7009657567 0.363751450224 -2.47939675878 116 125 134
-28.3720875245 7.40629162447 39.8440697652 92 86 86
-20.6877233016 -11.1492161209 13.4663812249 179 181 193
-28.1843064753 13.5294705207 40.399368007 189 187 198
-26.4543285338 16.4467249506 36.3124973805 186 177 175
-23.9653371835 -12.4893743822 23.3558079579 122 118 122
-23.7491425453 -9.71137882015 25.408909444 193 186 166
-21.7460527044 17.4108160937 27.7639503627 4 2 6
-19.015692073 -2.8804426533 4.08941408069 83 66 56
-28.2404895842 8.87692390781 39.6178134874 95 89 91
-26.5284268748 7.7971051768 34.6112325933 189 182 176
-23.0913089352 17.6244237617 20.3259012324 50 37 31
-28.5609092741 7.39547104756 40.3213452686 183 177 177
-24.067636081 17.4183973382 25.195897107 86 68 58
-26.7606363475 13.2143590121 36.2601363905 147 146 134
-26.7384600491 15.9665235996 36.8579012367 177 172 173
-26.7384600491 15.9665235996 36.8579012367 177 172 173
-27.744331783 -7.78529874889 36.005518202 207 211 214
-28.7169921248 9.82318292672 41.4398287044 96 89 96
-28.1935040626 7.00997931645 39.145300723 92 82 85
-28.0490725103 11.9166081313 39.862709349 73 75 79
-29.0210279406 0.815124987103 41.4968718827 244 237 234
-28.9170492821 -3.77649324789 40.1455425798 122 123 128
-18.1598596544 3.69363435195 6.96416398391 81 63 53
-27.0888738903 16.5550338087 38.0406780795 174 168 168
-25.7907728036 17.6184568053 35.0941453431 80 75 68
-28.3079388478 12.4699488007 40.416609175 73 75 79
-21.3162331275 5.16327788341 14.3396269049 147 127 108
-18.9173345234 -3.10740420946 6.97794619935 112 86 59
-29.1108758029 7.94046847155 42.0258871395 174 168 168
-28.3785773267 8.49305450821 39.8780027346 104 99 97
-26.7983863311 4.62263754034 35.2490832539 222 222 226
-21.4288665464 19.4177499734 22.5654075887 173 169 175
-22.0883937516 -5.62194937652 14.7885034093 85 63 50
-27.5039609367 5.74963871164 37.2381499045 233 229 228
-20.8938702637 15.6116598031 14.0050024403 143 126 116
-20.1518229035 17.4576948644 16.8647338839 162 150 136
-27.5842199661 12.3312433349 38.8067242105 91 91 102
-20.0765235074 -1.50492919712 9.25802278947 101 88 79
-20.2923995422 1.72857705939 10.9612003466 139 105 78
-17.7168328217 5.43161681589 5.54319212829 52 55 78
-18.6771018516 -1.07120747201 5.97939108382 191 178 169
-20.0933020915 -10.104019385 7.70485832397 129 115 108
-17.6518081619 11.385706206 5.81805675881 76 64 61
-18.4828819459 12.8193820877 8.17212082469 71 57 48
-16.8438353208 8.94632728621 5.48051055102 222 208 199
-20.2245431045 16.0235073669 11.9562970139 165 146 130
-20.0501976326 5.07406072832 11.5732290941 115 92 76
-18.6271286224 12.6949689097 8.2756729799 195 177 174
-21.7393872323 16.6151148486 17.0929241993 128 115 106
-18.6731403987 12.8518968625 9.07039457925 56 36 33
-17.3626848829 1.12876134396 4.19962510653 234 217 209
-21.3421665027 16.4931975258 15.2703890172 99 72 61
-17.7632245396 6.44335438303 5.74980569449 189 176 168
-25.5477797878 17.0297413797 34.2912984164 134 132 136
-24.8119460422 17.4361498877 32.2231042493 126 131 140
-24.8091150325 14.7906181241 32.1664662824 150 158 169
-26.6457920362 5.65054550837 34.5388918399 150 150 151
-20.576735251 15.1373243866 12.9767687748 97 77 67
-19.0467135806 18.0072759707 16.0649413385 163 163 172
-26.8819248801 0.554164240137 35.5630828851 177 167 166
-21.4014205496 10.9676853833 16.4491297609 171 153 143
-23.4356442945 16.5921186914 27.9634362287 137 135 146
-23.0203411552 19.3263470239 27.0196270887 118 116 120
-24.9458428033 1.07202895041 21.5653452035 100 85 74
-17.5494657401 -1.86026032266 4.64850471053 43 29 25
-22.4508272741 -9.93341687614 17.1969514411 190 184 188
-20.6920542862 -7.07520237798 7.27815030421 81 64 54
-26.0991313821 7.88391500537 33.8280002985 161 164 169
-26.0691057919 5.08033735474 33.5811349974 121 122 130
-24.9129946924 -8.71081246167 27.680917929 148 123 120
-27.5345169175 14.4921305035 39.000241685 216 205 204
-17.0433782739 -1.85460991641 4.03536610988 183 166 159
-25.2414635845 16.6492201436 33.1981924559 76 75 84
-20.1451535845 18.4615065601 18.9882512928 85 83 86
-22.2764070475 16.6885313366 19.4280628725 65 48 40
-22.7247726464 16.2614885186 19.8271452176 68 47 40
-27.0562696881 1.62248068119 36.3370429003 246 248 253
-22.7864295348 -6.35780577574 20.5975978628 84 70 64
-18.5380029058 16.0736191559 11.1731880925 122 100 87
-27.4702954798 10.7045545728 37.9458676649 83 85 100
-22.0682143087 -8.18039220232 22.418323942 198 174 161
-21.3162331275 5.16327788341 14.3396269049 147 127 108
-25.0974051009 2.8710897592 30.1378546144 148 146 157
-26.5024097387 1.60782792107 33.852789843 176 170 177
-26.3338300179 -1.1187212635 32.581388226 160 159 165
-17.1982524148 -2.14447362833 4.11749330004 212 195 187
-27.8567782453 6.81094278918 38.123979947 93 81 85
-31.7543957357 10.6437588045 50.3184652009 154 144 143
-21.1160258072 -11.2560157304 15.5128004385 173 154 143
-17.0174779548 0.214788192087 3.81879073301 95 79 66
-26.5598364474 -9.93063147985 31.5953462984 144 143 148
-17.8277008493 2.85166775365 4.80391264886 162 150 138
-25.3211072594 -8.97168839524 30.2607028616 92 93 106
-22.5124368294 -11.2341258707 21.2931516517 151 149 154
-18.6012116479 0.160268242948 3.5646707296 67 57 58
-18.9529732794 8.57608394211 8.61914865829 70 55 43
-19.9283263778 -12.2395280966 11.7751446133 131 107 86
-23.1173381453 -13.1748632289 21.1487200126 161 160 158
-25.0601553046 -0.154440647273 29.7227743482 102 102 103
-19.9724249041 -10.6100179472 7.69693664186 48 34 23
-22.4109907259 -11.5834886582 19.2508292349 89 93 102
-26.6602346996 -12.3093736142 31.4362760663 152 146 154
-20.2428123217 -9.65682259836 6.86690706864 235 214 202
-23.4728422588 15.618626465 25.7556820995 110 125 144
-19.1495035179 13.582879311 8.8967357048 78 63 56
-24.9294823697 15.6987232924 24.8672980007 129 103 93
-26.3813903804 -0.693671818243 33.1726219997 227 226 233
-20.6209824213 -4.78146514384 6.96618202515 125 111 102
-19.4153343754 -2.41242627186 7.72221073135 97 78 69
-25.9520434293 8.35299370354 25.6738091975 160 140 123
-18.1063140165 2.21306984577 6.41451431675 117 103 92
-16.9315875524 6.05564932784 4.31036024065 77 95 119
-26.0934319738 8.35990129188 26.2418399586 118 100 83
-19.5956958153 -13.2895482664 11.6245302138 140 120 114
-19.0743392829 10.8596807063 10.535174654 150 125 105
-20.9316101552 -2.02502696161 10.7774862382 191 176 165
-19.5991968202 -0.677943629273 8.73221509207 96 61 40
-17.4531373157 3.14804340541 5.16720859709 108 93 80
-22.2652279178 0.374928631737 14.8482246826 143 114 103
-29.0570662118 2.95634548862 41.9760809886 176 161 162
-22.9222032755 15.874930375 18.781381348 69 53 48
-20.3323726996 6.30645366986 12.9147448988 195 173 151
-22.9599231821 -9.68731084286 19.9340616223 182 178 188
-22.3037980776 -16.7134171986 16.8242234875 209 206 216
-17.963648367 1.98310791141 5.91100078543 136 114 101
-18.4382978659 -0.428358986599 6.92183144721 134 115 100
-18.7258194426 9.98962652257 7.98911525119 54 43 42
-18.0472216874 1.63259952486 6.26610638527 232 214 208
-22.0931627523 -12.7049480965 19.1666196993 177 177 180
-17.6614750377 4.46279961433 6.98763390983 134 109 89
-20.4137738092 1.40222107623 11.1497606301 172 144 120
-22.1300470054 15.6026514807 16.9672197606 120 99 83
-23.3120888417 7.21247028788 18.7921326552 99 82 73
-25.4363260212 -3.52407671979 27.7904092311 123 91 84
-21.2291308695 -6.56063257451 8.89567429449 91 74 67
-19.5724732344 -5.7041825677 6.21980791713 207 193 182
-24.3192030697 -7.10094400876 25.6482514319 115 79 69
-18.626424076 -12.89354119 18.5844335609 130 130 130
-24.4435036912 -6.37234267974 26.0272372182 146 109 97
-23.7078139265 10.9416380083 27.1909922157 69 79 105
-19.1422501733 -5.98107982154 5.12046968993 153 139 129
-21.3022750829 -13.3254751665 15.2214768288 140 140 142
-23.8272725605 0.0447532568604 17.0702943217 174 147 132
-20.4653716907 -0.885044336789 10.2003358258 128 118 106
-20.4533245069 -0.884942979875 10.2030606742 128 118 106
-26.2358048615 -0.243552726898 25.5849357191 144 125 111
-19.5376234414 -7.24316882005 5.31805707582 191 174 171
-18.7896623149 6.36532118959 9.90703814002 51 57 76
-19.8788799951 6.43012209834 10.4735218314 55 56 73
-16.5974927166 8.02237048095 3.81681264916 157 128 113
-23.0985083807 -9.17377586385 19.5044877354 108 70 60
-23.8210146198 10.4353912223 21.4647939448 101 86 77
-24.8596987896 11.3649391579 22.6835544323 32 18 7
-23.6892545064 16.1139648809 25.7424982174 89 125 127
-22.641514487 -9.25356460017 16.9408770268 104 78 63
-22.7122148598 3.88232847658 15.9027199018 156 141 134
-24.6608991569 13.8077287147 31.1968583065 164 164 166
-21.2054390818 2.24014174652 12.515970838 53 43 33
-19.5977099333 -11.7119061351 10.2438481337 116 103 98
-23.7381752523 -12.1655033067 23.1863633138 134 132 136
-18.2627299757 14.7650807116 7.53727954823 76 62 62
-19.2411237242 11.7159410794 10.8632626516 84 91 120
